30.000000   29.845358   29.690712   29.536062   29.381409   29.226751   29.072090   28.917425   28.762756   28.608084   28.453407   28.298727   28.144043   27.989355   27.834663   27.679968   27.525270   27.370567   27.215862   27.061152   26.906439   26.751720   26.597000   26.442272   26.287539   26.132795   25.978046   25.823288   25.668524   25.513752   25.358973   25.204185   25.049393   24.894590   24.739780   24.584963   24.430138   24.275305   24.120464   23.965616   23.810760   23.655897   23.501026   23.346148   23.191261   23.036367   22.881466   22.726557   22.571640   22.416714   22.261772   22.106817   21.951847   21.796862   21.641861   21.486845   21.331814   21.176767   21.021708   20.866631   20.711538   20.556431   20.401308   20.246168   20.091011   19.935837   19.780647   19.625439   19.470213   19.314966   19.159702   19.004419   18.849117   18.693794   18.538450   18.383085   18.227697   18.072287   17.916853   17.761395   17.605913   17.450405   17.294870   17.139309   16.983719   16.828098   16.672447   16.516766   16.361050   16.205299   16.049515   15.893691   15.737830   15.581928   15.425984   15.269995   15.113960   14.957877   14.801744   14.645557   14.489315   14.333014   14.176653   14.020227   13.863732   13.707168   13.550527   13.393807   13.237003   13.080112   12.923126   12.766045   12.608859   12.451566   12.294156   12.136625   11.978964   11.821166   11.663222   11.505124   11.346862   11.188426   11.029805   10.870988   10.711962   10.552713   10.393229   10.233493   10.073488    9.913198    9.752602    9.591680    9.430412    9.268775    9.106743    8.944289    8.781384    8.617993    8.454084    8.289618    8.124555    7.958849    7.792452    7.625311    7.457368    7.288559    7.118816    6.948062    6.776213    6.603174    6.428842    6.253099    6.075817    5.896848    5.716029    5.533171    5.348059    5.160449    4.970053    4.776539    4.579515    4.378515    4.172986    3.962258    3.745535    3.521872    3.290214    3.049554    2.799417    2.540912    2.277228    2.000000   -2.000000   -2.000000   -2.000000   -2.000000   -2.000000   -2.000000   -2.000000   -2.000000   -2.000000   -2.000000   -2.000000   -2.000000   -2.000000   -2.000000   -2.000000   -2.000000   -2.000000   -2.000000   -2.000000   -2.000000   -2.000000   -2.000000   -2.000000   -2.000000   -2.000000   -2.000000   -2.000000   -2.000000   -2.000000   -2.000000  -10.000000
30.000000   29.845358   29.690712   29.536062   29.381409   29.226751   29.072090   28.917425   28.762756   28.608084   28.453407   28.298727   28.144043   27.989355   27.834663   27.679970   27.525270   27.370569   27.215862   27.061153   26.906439   26.751722   26.597000   26.442274   26.287539   26.132797   25.978046   25.823290   25.668526   25.513754   25.358974   25.204189   25.049395   24.894594   24.739784   24.584967   24.430141   24.275311   24.120470   23.965622   23.810766   23.655903   23.501032   23.346153   23.191267   23.036373   22.881472   22.726562   22.571646   22.416719   22.261778   22.106823   21.951853   21.796867   21.641867   21.486851   21.331821   21.176777   21.021717   20.866640   20.711550   20.556444   20.401321   20.246181   20.091026   19.935854   19.780663   19.625456   19.470230   19.314987   19.159723   19.004442   18.849142   18.693821   18.538477   18.383114   18.227728   18.072321   17.916887   17.761433   17.605951   17.450447   17.294914   17.139357   16.983768   16.828154   16.672504   16.516827   16.361115   16.205370   16.049587   15.893770   15.737913   15.582018   15.426079   15.270097   15.114068   14.957993   14.801867   14.645687   14.489454   14.333162   14.176810   14.020394   13.863912   13.707357   13.550730   13.394022   13.237232   13.080355   12.923387   12.766321   12.609155   12.451880   12.294492   12.136982   11.979345   11.821572   11.663655   11.505586   11.347354   11.188951   11.030366   10.871586   10.712601   10.553396   10.393958   10.234272   10.074321    9.914087    9.753553    9.592699    9.431503    9.269944    9.107996    8.945633    8.782825    8.619541    8.455748    8.291407    8.126479    7.960921    7.794687    7.627723    7.459974    7.291379    7.121872    6.951379    6.779819    6.607101    6.433129    6.257790    6.080964    5.902513    5.722284    5.540106    5.355782    5.169092    4.979784    4.787569    4.592119    4.393055    4.189947    3.982312    3.769623    3.551345    3.327032    3.096527    2.860381    2.620612    2.382094    2.157242    2.000000   -2.000000   -2.000000   -2.000000   -2.000000   -2.000000   -2.000000   -2.000000   -2.000000   -2.000000   -2.000000   -2.000000   -2.000000   -2.000000   -2.000000   -2.000000   -2.000000   -2.000000   -2.000000   -2.000000   -2.000000   -2.000000   -2.000000   -2.000000   -2.000000   -2.000000   -2.000000   -2.000000   -2.000000   -2.000000  -10.000000
30.000000   29.845358   29.690712   29.536062   29.381409   29.226751   29.072090   28.917425   28.762756   28.608084   28.453407   28.298727   28.144043   27.989355   27.834665   27.679970   27.525272   27.370569   27.215864   27.061153   26.906441   26.751722   26.597002   26.442274   26.287540   26.132797   25.978048   25.823292   25.668528   25.513756   25.358976   25.204191   25.049398   24.894596   24.739788   24.584970   24.430147   24.275314   24.120476   23.965630   23.810774   23.655910   23.501040   23.346161   23.191275   23.036381   22.881479   22.726570   22.571653   22.416727   22.261787   22.106831   21.951860   21.796875   21.641876   21.486862   21.331833   21.176788   21.021730   20.866655   20.711565   20.556459   20.401339   20.246201   20.091045   19.935873   19.780685   19.625479   19.470257   19.315014   19.159752   19.004473   18.849173   18.693855   18.538515   18.383152   18.227770   18.072363   17.916935   17.761482   17.606005   17.450502   17.294975   17.139420   16.983837   16.828224   16.672583   16.516909   16.361202   16.205462   16.049686   15.893874   15.738026   15.582136   15.426206   15.270230   15.114211   14.958145   14.802029   14.645861   14.489637   14.333359   14.177019   14.020617   13.864148   13.707610   13.550998   13.394308   13.237536   13.080679   12.923731   12.766689   12.609546   12.452297   12.294936   12.137457   11.979850   11.822110   11.664229   11.506198   11.348008   11.189649   11.031110   10.872380   10.713449   10.554301   10.394925   10.235305   10.075424    9.915268    9.754816    9.594050    9.432950    9.271494    9.109657    8.947413    8.784735    8.621591    8.457949    8.293774    8.129025    7.963664    7.797642    7.630912    7.463419    7.295105    7.125908    6.955756    6.784575    6.612278    6.438776    6.263964    6.087730    5.909950    5.730485    5.549181    5.365866    5.180348    4.992416    4.801831    4.608333    4.411635    4.211433    4.007417    3.799296    3.586853    3.370041    3.149138    2.924966    2.699060    2.473295    2.246871    2.000000   -2.000000   -2.000000   -2.000000   -2.000000   -2.000000   -2.000000   -2.000000   -2.000000   -2.000000   -2.000000   -2.000000   -2.000000   -2.000000   -2.000000   -2.000000   -2.000000   -2.000000   -2.000000   -2.000000   -2.000000   -2.000000   -2.000000   -2.000000   -2.000000   -2.000000   -2.000000   -2.000000   -2.000000   -2.000000  -10.000000
30.000000   29.845358   29.690712   29.536062   29.381409   29.226751   29.072090   28.917425   28.762756   28.608084   28.453407   28.298727   28.144043   27.989357   27.834665   27.679972   27.525272   27.370571   27.215864   27.061155   26.906441   26.751724   26.597002   26.442276   26.287540   26.132799   25.978050   25.823294   25.668530   25.513758   25.358978   25.204193   25.049400   24.894600   24.739790   24.584974   24.430151   24.275320   24.120481   23.965635   23.810781   23.655920   23.501049   23.346170   23.191284   23.036390   22.881489   22.726580   22.571663   22.416737   22.261797   22.106842   21.951872   21.796888   21.641890   21.486876   21.331848   21.176805   21.021746   20.866673   20.711584   20.556479   20.401360   20.246223   20.091070   19.935900   19.780712   19.625509   19.470287   19.315046   19.159788   19.004509   18.849213   18.693895   18.538559   18.383200   18.227821   18.072418   17.916992   17.761543   17.606071   17.450575   17.295052   17.139502   16.983923   16.828316   16.672678   16.517010   16.361309   16.205576   16.049809   15.894005   15.738164   15.582284   15.426362   15.270398   15.114389   14.958334   14.802231   14.646075   14.489867   14.333602   14.177279   14.020893   13.864443   13.707923   13.551332   13.394663   13.237915   13.081081   12.924160   12.767145   12.610033   12.452815   12.295488   12.138044   11.980477   11.822780   11.664943   11.506959   11.348819   11.190514   11.032033   10.873365   10.714500   10.555425   10.396125   10.236587   10.076795    9.916733    9.756383    9.595727    9.434745    9.273416    9.111715    8.949620    8.787102    8.624130    8.460676    8.296704    8.132178    7.967057    7.801299    7.634855    7.467677    7.299708    7.130890    6.961157    6.790439    6.618657    6.445725    6.271553    6.096037    5.919067    5.740520    5.560262    5.378147    5.194016    5.007697    4.819004    4.627742    4.433715    4.236731    4.036624    3.833288    3.626728    3.417139    3.205017    2.991283    2.777366    2.565154    2.356949    2.157868    2.000000   -2.000000   -2.000000   -2.000000   -2.000000   -2.000000   -2.000000   -2.000000   -2.000000   -2.000000   -2.000000   -2.000000   -2.000000   -2.000000   -2.000000   -2.000000   -2.000000   -2.000000   -2.000000   -2.000000   -2.000000   -2.000000   -2.000000   -2.000000   -2.000000   -2.000000   -2.000000   -2.000000   -2.000000  -10.000000
30.000000   29.845358   29.690712   29.536062   29.381409   29.226751   29.072090   28.917425   28.762756   28.608084   28.453407   28.298727   28.144045   27.989357   27.834667   27.679972   27.525274   27.370571   27.215866   27.061155   26.906443   26.751724   26.597004   26.442276   26.287542   26.132801   25.978052   25.823296   25.668531   25.513760   25.358980   25.204195   25.049402   24.894602   24.739794   24.584978   24.430157   24.275326   24.120487   23.965643   23.810789   23.655928   23.501059   23.346182   23.191296   23.036402   22.881500   22.726591   22.571674   22.416748   22.261808   22.106853   21.951885   21.796902   21.641905   21.486893   21.331865   21.176825   21.021767   20.866693   20.711607   20.556503   20.401384   20.246250   20.091099   19.935930   19.780746   19.625544   19.470324   19.315086   19.159830   19.004555   18.849260   18.693947   18.538612   18.383257   18.227880   18.072483   17.917063   17.761618   17.606152   17.450659   17.295141   17.139595   16.984024   16.828423   16.672792   16.517132   16.361439   16.205713   16.049955   15.894160   15.738330   15.582459   15.426550   15.270597   15.114602   14.958560   14.802471   14.646332   14.490139   14.333893   14.177588   14.021222   13.864792   13.708296   13.551727   13.395085   13.238364   13.081561   12.924670   12.767690   12.610612   12.453433   12.296146   12.138745   11.981224   11.823576   11.665792   11.507864   11.349784   11.191544   11.033132   10.874537   10.715752   10.556761   10.397552   10.238111   10.078424    9.918475    9.758246    9.597720    9.436877    9.275699    9.114161    8.952241    8.789912    8.627147    8.463914    8.300183    8.135918    7.971081    7.805632    7.639527    7.472718    7.305154    7.136781    6.967538    6.797360    6.626176    6.453911    6.280479    6.105793    5.929756    5.752260    5.573195    5.392440    5.209868    5.025346    4.838739    4.649914    4.458750    4.265148    4.069057    3.870502    3.669629    3.466767    3.262506    3.057782    2.853965    2.653004    2.457903    2.274522    2.116270    2.000000   -2.000000   -2.000000   -2.000000   -2.000000   -2.000000   -2.000000   -2.000000   -2.000000   -2.000000   -2.000000   -2.000000   -2.000000   -2.000000   -2.000000   -2.000000   -2.000000   -2.000000   -2.000000   -2.000000   -2.000000   -2.000000   -2.000000   -2.000000   -2.000000   -2.000000   -2.000000   -2.000000  -10.000000
30.000000   29.845358   29.690712   29.536062   29.381409   29.226751   29.072090   28.917425   28.762756   28.608084   28.453407   28.298729   28.144045   27.989359   27.834667   27.679974   27.525274   27.370573   27.215866   27.061157   26.906443   26.751726   26.597004   26.442278   26.287544   26.132803   25.978054   25.823298   25.668533   25.513762   25.358982   25.204197   25.049404   24.894604   24.739796   24.584982   24.430161   24.275331   24.120493   23.965651   23.810797   23.655937   23.501070   23.346193   23.191309   23.036415   22.881514   22.726604   22.571688   22.416761   22.261822   22.106867   21.951900   21.796919   21.641924   21.486914   21.331886   21.176847   21.021791   20.866720   20.711634   20.556532   20.401415   20.246283   20.091133   19.935966   19.780783   19.625584   19.470366   19.315130   19.159878   19.004606   18.849316   18.694006   18.538675   18.383324   18.227951   18.072557   17.917141   17.761703   17.606241   17.450756   17.295244   17.139706   16.984140   16.828547   16.672924   16.517273   16.361588   16.205873   16.050123   15.894341   15.738521   15.582664   15.426765   15.270828   15.114847   14.958821   14.802749   14.646627   14.490455   14.334228   14.177945   14.021602   13.865197   13.708726   13.552186   13.395574   13.238885   13.082115   12.925261   12.768318   12.611282   12.454146   12.296906   12.139556   11.982088   11.824496   11.666773   11.508910   11.350900   11.192734   11.034401   10.875893   10.717197   10.558305   10.399200   10.239872   10.080305    9.920485    9.760396    9.600019    9.439338    9.278333    9.116982    8.955262    8.793151    8.630620    8.467643    8.304187    8.140221    7.975708    7.810614    7.644894    7.478506    7.311403    7.143535    6.974847    6.805281    6.634772    6.463255    6.290656    6.116897    5.941895    5.765565    5.587814    5.408546    5.227666    5.045078    4.860690    4.674423    4.486217    4.296051    4.103952    3.910032    3.714516    3.517792    3.320458    3.123372    2.927707    2.734994    2.547136    2.366045    2.190558    2.000000   -2.000000   -2.000000   -2.000000   -2.000000   -2.000000   -2.000000   -2.000000   -2.000000   -2.000000   -2.000000   -2.000000   -2.000000   -2.000000   -2.000000   -2.000000   -2.000000   -2.000000   -2.000000   -2.000000   -2.000000   -2.000000   -2.000000   -2.000000   -2.000000   -2.000000   -2.000000   -2.000000  -10.000000
30.000000   29.845358   29.690712   29.536062   29.381409   29.226751   29.072090   28.917425   28.762756   28.608084   28.453409   28.298729   28.144047   27.989359   27.834669   27.679974   27.525276   27.370573   27.215868   27.061157   26.906445   26.751726   26.597006   26.442280   26.287546   26.132805   25.978056   25.823299   25.668535   25.513763   25.358986   25.204199   25.049408   24.894608   24.739801   24.584986   24.430166   24.275337   24.120502   23.965658   23.810806   23.655947   23.501080   23.346205   23.191320   23.036428   22.881529   22.726620   22.571703   22.416777   22.261837   22.106884   21.951918   21.796938   21.641945   21.486935   21.331911   21.176872   21.021818   20.866749   20.711664   20.556564   20.401449   20.246317   20.091171   19.936007   19.780827   19.625629   19.470415   19.315184   19.159933   19.004665   18.849379   18.694071   18.538746   18.383398   18.228031   18.072643   17.917233   17.761801   17.606346   17.450865   17.295361   17.139830   16.984272   16.828688   16.673075   16.517431   16.361757   16.206053   16.050316   15.894544   15.738737   15.582893   15.427011   15.271089   15.115126   14.959117   14.803064   14.646963   14.490811   14.334608   14.178349   14.022032   13.865654   13.709213   13.552705   13.396127   13.239473   13.082742   12.925929   12.769030   12.612040   12.454954   12.297767   12.140472   11.983064   11.825537   11.667882   11.510093   11.352161   11.194078   11.035836   10.877423   10.718832   10.560049   10.401063   10.241860   10.082430    9.922755    9.762822    9.602613    9.442113    9.281302    9.120161    8.958669    8.796801    8.634534    8.471840    8.308694    8.145061    7.980913    7.816212    7.650921    7.485002    7.318411    7.151102    6.983028    6.814137    6.644372    6.473675    6.301985    6.129236    5.955360    5.780286    5.603944    5.426260    5.247169    5.066604    4.884515    4.700865    4.515644    4.328883    4.140666    3.951153    3.760609    3.569426    3.378158    3.187540    2.998497    2.812126    2.629603    2.451964    2.279917    2.116947    2.000000   -2.000000   -2.000000   -2.000000   -2.000000   -2.000000   -2.000000   -2.000000   -2.000000   -2.000000   -2.000000   -2.000000   -2.000000   -2.000000   -2.000000   -2.000000   -2.000000   -2.000000   -2.000000   -2.000000   -2.000000   -2.000000   -2.000000   -2.000000   -2.000000   -2.000000   -2.000000  -10.000000
30.000000   29.845358   29.690712   29.536062   29.381409   29.226751   29.072090   28.917425   28.762756   28.608086   28.453409   28.298731   28.144047   27.989361   27.834669   27.679976   27.525276   27.370575   27.215868   27.061159   26.906445   26.751728   26.597006   26.442282   26.287548   26.132807   25.978058   25.823301   25.668537   25.513765   25.358988   25.204203   25.049410   24.894611   24.739805   24.584991   24.430172   24.275345   24.120510   23.965668   23.810816   23.655958   23.501091   23.346218   23.191334   23.036444   22.881544   22.726637   22.571720   22.416794   22.261854   22.106903   21.951939   21.796959   21.641966   21.486959   21.331938   21.176901   21.021849   20.866781   20.711699   20.556601   20.401485   20.246357   20.091213   19.936052   19.780874   19.625679   19.470469   19.315241   19.159994   19.004730   18.849447   18.694145   18.538824   18.383482   18.228121   18.072739   17.917334   17.761909   17.606459   17.450987   17.295490   17.139969   16.984419   16.828844   16.673241   16.517609   16.361946   16.206253   16.050528   15.894771   15.738977   15.583150   15.427284   15.271380   15.115435   14.959447   14.803414   14.647336   14.491208   14.335030   14.178798   14.022511   13.866163   13.709755   13.553283   13.396741   13.240128   13.083439   12.926671   12.769821   12.612882   12.455851   12.298722   12.141490   11.984149   11.826693   11.669114   11.511407   11.353562   11.195573   11.037430   10.879124   10.720646   10.561985   10.403130   10.244068   10.084787    9.925274    9.765513    9.605491    9.445189    9.284594    9.123684    8.962440    8.800841    8.638865    8.476485    8.313677    8.150412    7.986660    7.822392    7.657571    7.492162    7.326128    7.159428    6.992020    6.823859    6.654896    6.485083    6.314367    6.142696    5.970016    5.796271    5.621408    5.445379    5.268138    5.089652    4.909897    4.728873    4.546608    4.363168    4.178671    3.993304    3.807338    3.621144    3.435207    3.250131    3.066615    2.885409    2.707185    2.532289    2.360201    2.187870    2.000000   -2.000000   -2.000000   -2.000000   -2.000000   -2.000000   -2.000000   -2.000000   -2.000000   -2.000000   -2.000000   -2.000000   -2.000000   -2.000000   -2.000000   -2.000000   -2.000000   -2.000000   -2.000000   -2.000000   -2.000000   -2.000000   -2.000000   -2.000000   -2.000000   -2.000000   -2.000000  -10.000000
30.000000   29.845358   29.690712   29.536062   29.381409   29.226751   29.072090   28.917425   28.762758   28.608086   28.453411   28.298731   28.144049   27.989361   27.834671   27.679976   27.525278   27.370575   27.215870   27.061159   26.906446   26.751728   26.597008   26.442282   26.287550   26.132809   25.978060   25.823303   25.668539   25.513767   25.358992   25.204206   25.049414   24.894615   24.739811   24.584997   24.430180   24.275352   24.120518   23.965675   23.810827   23.655970   23.501104   23.346231   23.191349   23.036459   22.881561   22.726654   22.571737   22.416813   22.261875   22.106924   21.951962   21.796984   21.641993   21.486986   21.331966   21.176931   21.021881   20.866816   20.711735   20.556639   20.401527   20.246401   20.091259   19.936102   19.780928   19.625736   19.470528   19.315304   19.160061   19.004803   18.849524   18.694225   18.538910   18.383574   18.228218   18.072842   17.917446   17.762026   17.606585   17.451120   17.295631   17.140118   16.984581   16.829016   16.673424   16.517803   16.362154   16.206472   16.050762   15.895019   15.739243   15.583431   15.427585   15.271699   15.115774   14.959807   14.803799   14.647744   14.491644   14.335493   14.179292   14.023035   13.866722   13.710350   13.553915   13.397415   13.240846   13.084203   12.927485   12.770687   12.613805   12.456834   12.299769   12.142606   11.985338   11.827960   11.670465   11.512847   11.355098   11.197209   11.039175   10.880985   10.722632   10.564104   10.405392   10.246483   10.087366    9.928028    9.768456    9.608636    9.448552    9.288190    9.127532    8.966559    8.805252    8.643590    8.481550    8.319109    8.156240    7.992919    7.829115    7.664800    7.499941    7.334504    7.168456    7.001760    6.834376    6.666266    6.497387    6.327700    6.157161    5.985731    5.813367    5.640036    5.465704    5.290351    5.113963    4.936544    4.758120    4.578743    4.398506    4.217544    4.036052    3.854292    3.672601    3.491395    3.311158    3.132422    2.955708    2.781436    2.609807    2.440725    2.274331    2.115185    2.000000   -2.000000   -2.000000   -2.000000   -2.000000   -2.000000   -2.000000   -2.000000   -2.000000   -2.000000   -2.000000   -2.000000   -2.000000   -2.000000   -2.000000   -2.000000   -2.000000   -2.000000   -2.000000   -2.000000   -2.000000   -2.000000   -2.000000   -2.000000   -2.000000   -2.000000  -10.000000
30.000000   29.845358   29.690712   29.536062   29.381409   29.226751   29.072090   28.917427   28.762758   28.608088   28.453411   28.298733   28.144049   27.989363   27.834671   27.679977   27.525278   27.370577   27.215870   27.061161   26.906446   26.751730   26.597008   26.442284   26.287550   26.132811   25.978062   25.823305   25.668541   25.513771   25.358994   25.204210   25.049417   24.894621   24.739815   24.585005   24.430187   24.275362   24.120527   23.965687   23.810839   23.655983   23.501118   23.346245   23.191364   23.036476   22.881578   22.726671   22.571756   22.416834   22.261898   22.106949   21.951984   21.797009   21.642019   21.487017   21.331997   21.176964   21.021915   20.866852   20.711773   20.556681   20.401571   20.246449   20.091309   19.936155   19.780985   19.625797   19.470592   19.315372   19.160135   19.004881   18.849607   18.694315   18.539003   18.383675   18.228325   18.072956   17.917566   17.762156   17.606720   17.451265   17.295786   17.140282   16.984755   16.829201   16.673620   16.518013   16.362377   16.206711   16.051016   15.895288   15.739530   15.583737   15.427909   15.272045   15.116141   14.960199   14.804215   14.648189   14.492115   14.335996   14.179826   14.023604   13.867329   13.710995   13.554602   13.398146   13.241623   13.085032   12.928367   12.771626   12.614805   12.457899   12.300904   12.143815   11.986627   11.829332   11.671928   11.514406   11.356760   11.198982   11.041065   10.883001   10.724782   10.566398   10.407839   10.249095   10.090155    9.931006    9.771638    9.612035    9.452186    9.292074    9.131686    8.971004    8.810011    8.648685    8.487009    8.324959    8.162515    7.999651    7.836343    7.672565    7.508289    7.343485    7.178126    7.012179    6.845614    6.678397    6.510496    6.341878    6.172513    6.002371    5.831427    5.659657    5.487048    5.313593    5.139300    4.964193    4.788315    4.611737    4.434565    4.256943    4.079065    3.901174    3.723571    3.546610    3.370685    3.196207    3.023561    2.853046    2.684777    2.518561    2.353546    2.186408    2.000000   -2.000000   -2.000000   -2.000000   -2.000000   -2.000000   -2.000000   -2.000000   -2.000000   -2.000000   -2.000000   -2.000000   -2.000000   -2.000000   -2.000000   -2.000000   -2.000000   -2.000000   -2.000000   -2.000000   -2.000000   -2.000000   -2.000000   -2.000000   -2.000000   -2.000000  -10.000000
30.000000   29.845358   29.690712   29.536062   29.381409   29.226751   29.072092   28.917427   28.762760   28.608088   28.453413   28.298733   28.144051   27.989363   27.834673   27.679977   27.525280   27.370577   27.215872   27.061161   26.906448   26.751730   26.597010   26.442284   26.287552   26.132811   25.978064   25.823307   25.668543   25.513773   25.358997   25.204212   25.049423   24.894625   24.739822   24.585012   24.430195   24.275370   24.120539   23.965698   23.810850   23.655994   23.501131   23.346260   23.191381   23.036493   22.881596   22.726690   22.571777   22.416855   22.261921   22.106974   21.952011   21.797035   21.642048   21.487047   21.332031   21.176998   21.021952   20.866890   20.711815   20.556725   20.401621   20.246500   20.091364   19.936213   19.781046   19.625862   19.470665   19.315447   19.160215   19.004965   18.849697   18.694410   18.539104   18.383781   18.228439   18.073076   17.917696   17.762291   17.606867   17.451420   17.295952   17.140457   16.984941   16.829399   16.673834   16.518238   16.362617   16.206966   16.051289   15.895578   15.739839   15.584065   15.428259   15.272416   15.116537   14.960620   14.804664   14.648664   14.492622   14.336535   14.180400   14.024216   13.867979   13.711688   13.555339   13.398931   13.242458   13.085920   12.929314   12.772635   12.615878   12.459043   12.302122   12.145112   11.988008   11.830805   11.673497   11.516078   11.358541   11.200882   11.043091   10.885161   10.727085   10.568855   10.410460   10.251892   10.093141    9.934195    9.775043    9.615672    9.456072    9.296227    9.136127    8.975754    8.815091    8.654123    8.492831    8.331197    8.169200    8.006820    7.844034    7.680821    7.517156    7.353016    7.188376    7.023211    6.857496    6.691206    6.524313    6.356798    6.188636    6.019810    5.850305    5.680113    5.509231    5.337669    5.165449    4.992608    4.819205    4.645321    4.471070    4.296597    4.122087    3.947765    3.773898    3.600787    3.428761    3.258156    3.089285    2.922407    2.757693    2.595196    2.434881    2.276900    2.123937    2.000000   -2.000000   -2.000000   -2.000000   -2.000000   -2.000000   -2.000000   -2.000000   -2.000000   -2.000000   -2.000000   -2.000000   -2.000000   -2.000000   -2.000000   -2.000000   -2.000000   -2.000000   -2.000000   -2.000000   -2.000000   -2.000000   -2.000000   -2.000000   -2.000000  -10.000000
30.000000   29.845358   29.690712   29.536062   29.381409   29.226753   29.072092   28.917429   28.762760   28.608089   28.453413   28.298735   28.144051   27.989365   27.834673   27.679979   27.525280   27.370579   27.215872   27.061163   26.906448   26.751732   26.597010   26.442286   26.287552   26.132812   25.978064   25.823309   25.668545   25.513775   25.358999   25.204218   25.049427   24.894632   24.739828   24.585020   24.430204   24.275381   24.120548   23.965710   23.810863   23.656010   23.501146   23.346275   23.191397   23.036510   22.881615   22.726711   22.571800   22.416880   22.261946   22.107000   21.952040   21.797066   21.642078   21.487080   21.332066   21.177036   21.021992   20.866934   20.711861   20.556774   20.401672   20.246555   20.091423   19.936275   19.781111   19.625933   19.470737   19.315527   19.160299   19.005054   18.849792   18.694511   18.539213   18.383896   18.228559   18.073206   17.917831   17.762438   17.607023   17.451588   17.296127   17.140646   16.985142   16.829613   16.674059   16.518478   16.362873   16.207239   16.051579   15.895887   15.740167   15.584415   15.428630   15.272812   15.116958   14.961068   14.805140   14.649172   14.493162   14.337110   14.181011   14.024866   13.868672   13.712425   13.556125   13.399766   13.243348   13.086867   12.930321   12.773706   12.617021   12.460258   12.303418   12.146492   11.989478   11.832372   11.675166   11.517857   11.360437   11.202902   11.045244   10.887457   10.729533   10.571465   10.413244   10.254863   10.096311    9.937578    9.778655    9.619530    9.460192    9.300630    9.140831    8.980783    8.820470    8.659877    8.498989    8.337789    8.176260    8.014385    7.852144    7.689520    7.526492    7.363040    7.199145    7.034788    6.869948    6.704608    6.538749    6.372356    6.205417    6.037922    5.869866    5.701252    5.532090    5.362399    5.192214    5.021582    4.850571    4.679270    4.507793    4.336285    4.164918    3.993899    3.823465    3.653877    3.485416    3.318369    3.153013    2.989605    2.828389    2.669648    2.513883    2.362374    2.218847    2.093384    2.000000   -2.000000   -2.000000   -2.000000   -2.000000   -2.000000   -2.000000   -2.000000   -2.000000   -2.000000   -2.000000   -2.000000   -2.000000   -2.000000   -2.000000   -2.000000   -2.000000   -2.000000   -2.000000   -2.000000   -2.000000   -2.000000   -2.000000   -2.000000  -10.000000
30.000000   29.845358   29.690712   29.536062   29.381411   29.226753   29.072094   28.917429   28.762762   28.608089   28.453415   28.298735   28.144053   27.989365   27.834675   27.679979   27.525282   27.370579   27.215874   27.061163   26.906450   26.751732   26.597012   26.442286   26.287554   26.132812   25.978065   25.823309   25.668547   25.513777   25.359003   25.204222   25.049433   24.894638   24.739838   24.585030   24.430214   24.275391   24.120562   23.965723   23.810877   23.656023   23.501162   23.346292   23.191416   23.036530   22.881636   22.726734   22.571825   22.416904   22.261972   22.107027   21.952070   21.797098   21.642113   21.487114   21.332102   21.177074   21.022032   20.866978   20.711908   20.556826   20.401726   20.246614   20.091484   19.936340   19.781181   19.626007   19.470818   19.315611   19.160389   19.005150   18.849892   18.694618   18.539328   18.384018   18.228689   18.073343   17.917978   17.762592   17.607187   17.451761   17.296314   17.140844   16.985353   16.829836   16.674297   16.518732   16.363144   16.207527   16.051886   15.896214   15.740515   15.584785   15.429024   15.273230   15.117403   14.961541   14.805643   14.649708   14.493732   14.337717   14.181658   14.025555   13.869404   13.713204   13.556953   13.400649   13.244287   13.087867   12.931386   12.774840   12.618227   12.461544   12.304787   12.147950   11.991031   11.834024   11.676928   11.519733   11.362437   11.205033   11.047515   10.889878   10.732115   10.574218   10.416180   10.257994   10.099650    9.941142    9.782458    9.623590    9.464527    9.305260    9.145778    8.986068    8.826118    8.665917    8.505449    8.344702    8.183660    8.022307    7.860631    7.698615    7.536243    7.373499    7.210370    7.046839    6.882895    6.718523    6.553713    6.388457    6.222749    6.056589    5.889980    5.722935    5.555471    5.387619    5.219420    5.050931    4.882223    4.713390    4.544545    4.375827    4.207397    4.039446    3.872182    3.705837    3.540656    3.376890    3.214790    3.054608    2.896611    2.741125    2.588626    2.439866    2.295693    2.154687    2.000000   -2.000000   -2.000000   -2.000000   -2.000000   -2.000000   -2.000000   -2.000000   -2.000000   -2.000000   -2.000000   -2.000000   -2.000000   -2.000000   -2.000000   -2.000000   -2.000000   -2.000000   -2.000000   -2.000000   -2.000000   -2.000000   -2.000000   -2.000000  -10.000000
30.000000   29.845358   29.690712   29.536064   29.381411   29.226755   29.072094   28.917431   28.762762   28.608091   28.453415   28.298737   28.144053   27.989367   27.834675   27.679981   27.525282   27.370581   27.215874   27.061165   26.906450   26.751734   26.597012   26.442287   26.287554   26.132814   25.978065   25.823311   25.668549   25.513781   25.359007   25.204227   25.049438   24.894646   24.739845   24.585039   24.430223   24.275402   24.120573   23.965736   23.810890   23.656038   23.501179   23.346310   23.191433   23.036549   22.881657   22.726757   22.571850   22.416931   22.262001   22.107058   21.952101   21.797131   21.642147   21.487150   21.332140   21.177114   21.022076   20.867023   20.711958   20.556877   20.401783   20.246674   20.091551   19.936409   19.781256   19.626085   19.470900   19.315699   19.160482   19.005249   18.849998   18.694731   18.539446   18.384146   18.228825   18.073488   17.918131   17.762756   17.607361   17.451946   17.296511   17.141054   16.985575   16.830072   16.674547   16.519001   16.363428   16.207830   16.052206   15.896557   15.740879   15.585173   15.429437   15.273670   15.117870   14.962039   14.806172   14.650270   14.494332   14.338354   14.182337   14.026276   13.870173   13.714022   13.557824   13.401575   13.245274   13.088917   12.932504   12.776030   12.619494   12.462893   12.306222   12.149479   11.992659   11.835759   11.678775   11.521701   11.364533   11.207266   11.049895   10.892415   10.734818   10.577100   10.419253   10.261271   10.103147    9.944871    9.786436    9.627834    9.469058    9.310097    9.150942    8.991584    8.832012    8.672215    8.512182    8.351901    8.191360    8.030547    7.869450    7.708058    7.546358    7.384338    7.221988    7.059299    6.896262    6.732869    6.569117    6.405002    6.240527    6.075698    5.910526    5.745030    5.579237    5.413182    5.246914    5.080493    4.913997    4.747518    4.581167    4.415076    4.249397    4.084301    3.919978    3.756632    3.594479    3.433742    3.274647    3.117425    2.962321    2.809611    2.659632    2.512770    2.369371    2.229672    2.096429    2.000000   -2.000000   -2.000000   -2.000000   -2.000000   -2.000000   -2.000000   -2.000000   -2.000000   -2.000000   -2.000000   -2.000000   -2.000000   -2.000000   -2.000000   -2.000000   -2.000000   -2.000000   -2.000000   -2.000000   -2.000000   -2.000000   -2.000000  -10.000000
30.000000   29.845358   29.690714   29.536064   29.381413   29.226755   29.072096   28.917431   28.762764   28.608091   28.453417   28.298737   28.144054   27.989367   27.834677   27.679981   27.525284   27.370581   27.215876   27.061165   26.906452   26.751734   26.597013   26.442287   26.287556   26.132814   25.978067   25.823311   25.668552   25.513784   25.359013   25.204231   25.049446   24.894653   24.739855   24.585049   24.430235   24.275414   24.120586   23.965750   23.810905   23.656054   23.501194   23.346327   23.191452   23.036570   22.881680   22.726782   22.571877   22.416960   22.262032   22.107090   21.952135   21.797165   21.642183   21.487188   21.332180   21.177158   21.022121   20.867073   20.712009   20.556932   20.401842   20.246737   20.091616   19.936481   19.781332   19.626167   19.470985   19.315790   19.160580   19.005352   18.850109   18.694849   18.539572   18.384277   18.228968   18.073639   17.918291   17.762926   17.607542   17.452137   17.296715   17.141270   16.985806   16.830318   16.674810   16.519279   16.363726   16.208147   16.052544   15.896914   15.741261   15.585578   15.429869   15.274129   15.118360   14.962558   14.806726   14.650859   14.494957   14.339020   14.183044   14.027030   13.870974   13.714875   13.558731   13.402542   13.246303   13.090013   12.933669   12.777271   12.620815   12.464299   12.307719   12.151073   11.994357   11.837567   11.680699   11.523751   11.366717   11.209593   11.052374   10.895057   10.737634   10.580101   10.422452   10.264681   10.106782    9.948748    9.790571    9.632245    9.473763    9.315119    9.156301    8.997306    8.838122    8.678741    8.519155    8.359352    8.199324    8.039062    7.878557    7.717801    7.556784    7.395499    7.233940    7.072101    6.909978    6.747570    6.584877    6.421902    6.258654    6.095144    5.931391    5.767418    5.603259    5.438953    5.274555    5.110129    4.945751    4.781514    4.617526    4.453911    4.290811    4.128382    3.966794    3.806231    3.646884    3.488950    3.332629    3.178122    3.025633    2.875368    2.727518    2.582211    2.439348    2.298201    2.156043    2.000000   -2.000000   -2.000000   -2.000000   -2.000000   -2.000000   -2.000000   -2.000000   -2.000000   -2.000000   -2.000000   -2.000000   -2.000000   -2.000000   -2.000000   -2.000000   -2.000000   -2.000000   -2.000000   -2.000000   -2.000000   -2.000000   -2.000000  -10.000000
30.000000   29.845360   29.690714   29.536066   29.381413   29.226757   29.072096   28.917433   28.762764   28.608093   28.453417   28.298738   28.144054   27.989368   27.834677   27.679983   27.525284   27.370583   27.215876   27.061167   26.906452   26.751736   26.597013   26.442289   26.287556   26.132816   25.978067   25.823315   25.668554   25.513788   25.359016   25.204239   25.049452   24.894661   24.739862   24.585058   24.430246   24.275427   24.120598   23.965763   23.810921   23.656071   23.501211   23.346346   23.191473   23.036592   22.881704   22.726809   22.571903   22.416988   22.262062   22.107122   21.952169   21.797203   21.642221   21.487228   21.332222   21.177204   21.022171   20.867125   20.712065   20.556990   20.401903   20.246801   20.091686   19.936556   19.781410   19.626249   19.471075   19.315886   19.160681   19.005459   18.850224   18.694971   18.539701   18.384415   18.229115   18.073793   17.918457   17.763102   17.607729   17.452337   17.296926   17.141497   16.986046   16.830574   16.675081   16.519569   16.364033   16.208475   16.052893   15.897286   15.741655   15.585999   15.430316   15.274606   15.118866   14.963098   14.807299   14.651469   14.495606   14.339710   14.183780   14.027811   13.871806   13.715760   13.559674   13.403544   13.247371   13.091148   12.934878   12.778559   12.622186   12.465757   12.309272   12.152726   11.996117   11.839440   11.682695   11.525876   11.368980   11.212004   11.054942   10.897792   10.740548   10.583206   10.425761   10.268208   10.110541    9.952755    9.794845    9.636803    9.478623    9.320303    9.161834    9.003208    8.844422    8.685466    8.526334    8.367019    8.207514    8.047812    7.887908    7.727796    7.567471    7.406927    7.246164    7.085179    6.923973    6.762549    6.600912    6.439070    6.277036    6.114829    5.952469    5.789988    5.627420    5.464814    5.302222    5.139711    4.977359    4.815257    4.653507    4.492228    4.331550    4.171617    4.012583    3.854612    3.697874    3.542544    3.388795    3.236800    3.086721    2.938706    2.792861    2.649208    2.507609    2.367740    2.229541    2.096720    2.000000   -2.000000   -2.000000   -2.000000   -2.000000   -2.000000   -2.000000   -2.000000   -2.000000   -2.000000   -2.000000   -2.000000   -2.000000   -2.000000   -2.000000   -2.000000   -2.000000   -2.000000   -2.000000   -2.000000   -2.000000   -2.000000  -10.000000
30.000000   29.845360   29.690716   29.536066   29.381414   29.226757   29.072098   28.917433   28.762766   28.608093   28.453419   28.298738   28.144056   27.989368   27.834679   27.679983   27.525286   27.370583   27.215878   27.061167   26.906454   26.751736   26.597015   26.442289   26.287558   26.132816   25.978069   25.823317   25.668558   25.513792   25.359022   25.204245   25.049459   24.894669   24.739872   24.585068   24.430258   24.275438   24.120611   23.965778   23.810936   23.656086   23.501230   23.346367   23.191494   23.036615   22.881729   22.726833   22.571930   22.417017   22.262093   22.107155   21.952204   21.797239   21.642262   21.487270   21.332266   21.177250   21.022221   20.867176   20.712120   20.557051   20.401966   20.246868   20.091757   19.936632   19.781490   19.626337   19.471169   19.315985   19.160786   19.005571   18.850342   18.695097   18.539835   18.384558   18.229265   18.073956   17.918629   17.763285   17.607924   17.452543   17.297146   17.141729   16.986294   16.830839   16.675364   16.519869   16.364353   16.208815   16.053253   15.897670   15.742064   15.586433   15.430779   15.275097   15.119390   14.963654   14.807892   14.652100   14.496278   14.340424   14.184539   14.028620   13.872665   13.716676   13.560647   13.404580   13.248472   13.092321   12.936127   12.779887   12.623600   12.467262   12.310874   12.154431   11.997931   11.841373   11.684752   11.528067   11.371313   11.214487   11.057588   10.900609   10.743549   10.586404   10.429168   10.271837   10.114409    9.956878    9.799238    9.641486    9.483617    9.325627    9.167512    9.009265    8.850883    8.692359    8.533689    8.374868    8.215893    8.056758    7.897460    7.737998    7.578367    7.418569    7.258603    7.098472    6.938180    6.777734    6.617145    6.456423    6.295588    6.134659    5.973664    5.812637    5.651618    5.490654    5.329802    5.169130    5.008714    4.848642    4.689014    4.529940    4.371541    4.213949    4.057305    3.901756    3.747455    3.594554    3.443207    3.293559    3.145744    2.999873    2.856012    2.714149    2.574140    2.435609    2.297662    2.157339    2.000000   -2.000000   -2.000000   -2.000000   -2.000000   -2.000000   -2.000000   -2.000000   -2.000000   -2.000000   -2.000000   -2.000000   -2.000000   -2.000000   -2.000000   -2.000000   -2.000000   -2.000000   -2.000000   -2.000000   -2.000000   -2.000000  -10.000000
30.000000   29.845360   29.690716   29.536068   29.381414   29.226759   29.072098   28.917435   28.762766   28.608095   28.453419   28.298740   28.144056   27.989370   27.834679   27.679985   27.525286   27.370584   27.215878   27.061169   26.906454   26.751738   26.597015   26.442291   26.287558   26.132818   25.978071   25.823320   25.668562   25.513798   25.359026   25.204250   25.049467   24.894678   24.739882   24.585079   24.430267   24.275450   24.120625   23.965792   23.810951   23.656103   23.501249   23.346386   23.191515   23.036638   22.881752   22.726858   22.571957   22.417048   22.262123   22.107187   21.952238   21.797276   21.642300   21.487312   21.332312   21.177298   21.022272   20.867231   20.712177   20.557112   20.402031   20.246937   20.091829   19.936708   19.781574   19.626425   19.471264   19.316086   19.160892   19.005686   18.850464   18.695225   18.539972   18.384705   18.229422   18.074121   17.918806   17.763474   17.608124   17.452757   17.297373   17.141972   16.986549   16.831112   16.675653   16.520176   16.364679   16.209164   16.053625   15.898066   15.742484   15.586881   15.431253   15.275603   15.119927   14.964227   14.808500   14.652748   14.496966   14.341158   14.185319   14.029449   13.873549   13.717615   13.561647   13.405644   13.249605   13.093527   12.937409   12.781252   12.625051   12.468808   12.312519   12.156182   11.999795   11.843357   11.686864   11.530314   11.373706   11.217035   11.060301   10.903499   10.746626   10.589680   10.432658   10.275556   10.118369    9.961097    9.803734    9.646277    9.488723    9.331069    9.173312    9.015449    8.857475    8.699389    8.541186    8.382865    8.224422    8.065858    7.907170    7.748358    7.589424    7.430370    7.271199    7.111918    6.952534    6.793058    6.633503    6.473885    6.314225    6.154549    5.994886    5.835274    5.675754    5.516376    5.357198    5.198288    5.039721    4.881581    4.723964    4.566973    4.410721    4.255331    4.100930    3.947651    3.795631    3.645008    3.495916    3.348483    3.202822    3.059029    2.917163    2.777236    2.639190    2.502893    2.368157    2.234973    2.105504    2.000000   -2.000000   -2.000000   -2.000000   -2.000000   -2.000000   -2.000000   -2.000000   -2.000000   -2.000000   -2.000000   -2.000000   -2.000000   -2.000000   -2.000000   -2.000000   -2.000000   -2.000000   -2.000000   -2.000000   -2.000000  -10.000000
30.000000   29.845360   29.690716   29.536068   29.381416   29.226759   29.072100   28.917435   28.762768   28.608095   28.453421   28.298740   28.144058   27.989370   27.834681   27.679985   27.525288   27.370584   27.215879   27.061169   26.906456   26.751738   26.597017   26.442291   26.287560   26.132820   25.978075   25.823322   25.668566   25.513802   25.359034   25.204256   25.049475   24.894686   24.739891   24.585089   24.430279   24.275461   24.120638   23.965805   23.810966   23.656120   23.501266   23.346405   23.191536   23.036659   22.881775   22.726883   22.571983   22.417076   22.262156   22.107220   21.952272   21.797312   21.642340   21.487354   21.332357   21.177347   21.022326   20.867289   20.712238   20.557175   20.402098   20.247007   20.091906   19.936790   19.781660   19.626516   19.471359   19.316189   19.161003   19.005802   18.850588   18.695358   18.540113   18.384855   18.229580   18.074291   17.918987   17.763666   17.608328   17.452974   17.297604   17.142216   16.986813   16.831390   16.675951   16.520493   16.365015   16.209520   16.054005   15.898469   15.742914   15.587337   15.431740   15.276120   15.120479   14.964812   14.809124   14.653411   14.497673   14.341908   14.186118   14.030299   13.874453   13.718577   13.562671   13.406734   13.250763   13.094759   12.938721   12.782646   12.626536   12.470387   12.314200   12.157971   12.001699   11.845384   11.689021   11.532611   11.376149   11.219637   11.063070   10.906446   10.749764   10.593022   10.436216   10.279346   10.122406    9.965396    9.808313    9.651155    9.493919    9.336605    9.179211    9.021734    8.864173    8.706527    8.548795    8.390975    8.233068    8.075073    7.916995    7.758834    7.600594    7.442280    7.283899    7.125460    6.966974    6.808455    6.649918    6.491383    6.332874    6.174420    6.016054    5.857813    5.699742    5.541893    5.384323    5.227099    5.070296    4.913994    4.758283    4.603263    4.449038    4.295721    4.143428    3.992283    3.842409    3.693930    3.546965    3.401631    3.258031    3.116256    2.976375    2.838439    2.702492    2.568617    2.437099    2.308891    2.187042    2.080045    2.000000   -2.000000   -2.000000   -2.000000   -2.000000   -2.000000   -2.000000   -2.000000   -2.000000   -2.000000   -2.000000   -2.000000   -2.000000   -2.000000   -2.000000   -2.000000   -2.000000   -2.000000   -2.000000   -2.000000  -10.000000
30.000000   29.845360   29.690716   29.536068   29.381416   29.226761   29.072100   28.917437   28.762768   28.608097   28.453421   28.298742   28.144058   27.989372   27.834681   27.679987   27.525288   27.370586   27.215879   27.061171   26.906456   26.751740   26.597017   26.442293   26.287560   26.132822   25.978077   25.823326   25.668570   25.513807   25.359039   25.204264   25.049482   24.894695   24.739899   24.585098   24.430290   24.275475   24.120649   23.965820   23.810984   23.656137   23.501286   23.346426   23.191557   23.036682   22.881800   22.726910   22.572012   22.417105   22.262186   22.107254   21.952307   21.797350   21.642380   21.487398   21.332403   21.177399   21.022379   20.867346   20.712299   20.557240   20.402166   20.247080   20.091984   19.936872   19.781748   19.626610   19.471458   19.316294   19.161116   19.005922   18.850716   18.695494   18.540258   18.385008   18.229744   18.074465   17.919172   17.763863   17.608538   17.453196   17.297840   17.142467   16.987080   16.831675   16.676252   16.520815   16.365358   16.209885   16.054392   15.898881   15.743352   15.587804   15.432236   15.276649   15.121039   14.965410   14.809759   14.654087   14.498391   14.342673   14.186931   14.031165   13.875374   13.719556   13.563713   13.407842   13.251943   13.096013   12.940055   12.784067   12.628047   12.471996   12.315911   12.159792   12.003636   11.847445   11.691215   11.534945   11.378634   11.222281   11.065885   10.909443   10.752954   10.596417   10.439831   10.283193   10.126502    9.969758    9.812958    9.656100    9.499186    9.342214    9.185184    9.028094    8.870948    8.713743    8.556481    8.399163    8.241791    8.084366    7.926895    7.769381    7.611830    7.454250    7.296650    7.139043    6.981441    6.823862    6.666323    6.508848    6.351463    6.194198    6.037089    5.880176    5.723504    5.567125    5.411098    5.255487    5.100365    4.945810    4.791909    4.638753    4.486443    4.335081    4.184777    4.035642    3.887790    3.741333    3.596382    3.453043    3.311414    3.171586    3.033640    2.897654    2.763720    2.631985    2.502728    2.376452    2.253727    2.133139    2.000000   -2.000000   -2.000000   -2.000000   -2.000000   -2.000000   -2.000000   -2.000000   -2.000000   -2.000000   -2.000000   -2.000000   -2.000000   -2.000000   -2.000000   -2.000000   -2.000000   -2.000000   -2.000000   -2.000000  -10.000000
30.000000   29.845360   29.690716   29.536068   29.381416   29.226761   29.072102   28.917437   28.762770   28.608097   28.453423   28.298742   28.144060   27.989372   27.834682   27.679987   27.525290   27.370586   27.215881   27.061171   26.906458   26.751740   26.597019   26.442293   26.287563   26.132826   25.978081   25.823330   25.668575   25.513813   25.359045   25.204269   25.049490   24.894703   24.739908   24.585108   24.430302   24.275486   24.120665   23.965836   23.810999   23.656155   23.501305   23.346445   23.191580   23.036705   22.881824   22.726936   22.572039   22.417133   22.262217   22.107286   21.952343   21.797388   21.642420   21.487442   21.332451   21.177448   21.022432   20.867403   20.712360   20.557304   20.402235   20.247154   20.092062   19.936956   19.781837   19.626705   19.471560   19.316401   19.161230   19.006044   18.850845   18.695631   18.540405   18.385164   18.229910   18.074642   17.919359   17.764061   17.608749   17.453423   17.298080   17.142723   16.987350   16.831963   16.676561   16.521141   16.365705   16.210253   16.054785   15.899299   15.743797   15.588277   15.432739   15.277184   15.121610   14.966016   14.810404   14.654772   14.499121   14.343449   14.187757   14.032043   13.876307   13.720551   13.564770   13.408966   13.253138   13.097285   12.941409   12.785507   12.629580   12.473625   12.317645   12.161636   12.005600   11.849534   11.693438   11.537310   11.381151   11.224959   11.068734   10.912475   10.756181   10.599851   10.443485   10.287083   10.130642    9.974164    9.817648    9.661093    9.504500    9.347871    9.191205    9.034506    8.877772    8.721008    8.564216    8.407397    8.250556    8.093699    7.936830    7.779956    7.623087    7.466232    7.309403    7.152613    6.995880    6.839221    6.682659    6.526217    6.369925    6.213815    6.057924    5.902292    5.746967    5.592001    5.437451    5.283381    5.129862    4.976969    4.824785    4.673396    4.522895    4.373381    4.224953    4.077716    3.931772    3.787228    3.644185    3.502743    3.362995    3.225033    3.088943    2.954814    2.822747    2.692874    2.565375    2.440462    2.318274    2.198783    2.084038    2.000000   -2.000000   -2.000000   -2.000000   -2.000000   -2.000000   -2.000000   -2.000000   -2.000000   -2.000000   -2.000000   -2.000000   -2.000000   -2.000000   -2.000000   -2.000000   -2.000000   -2.000000   -2.000000  -10.000000
30.000000   29.845360   29.690716   29.536068   29.381416   29.226761   29.072102   28.917439   28.762770   28.608099   28.453423   28.298744   28.144060   27.989374   27.834682   27.679989   27.525290   27.370588   27.215881   27.061172   26.906460   26.751741   26.597021   26.442295   26.287565   26.132830   25.978085   25.823336   25.668579   25.513819   25.359051   25.204277   25.049498   24.894711   24.739918   24.585119   24.430311   24.275497   24.120676   23.965849   23.811014   23.656172   23.501322   23.346466   23.191601   23.036728   22.881849   22.726961   22.572065   22.417162   22.262247   22.107319   21.952379   21.797426   21.642462   21.487486   21.332497   21.177498   21.022486   20.867460   20.712421   20.557369   20.402306   20.247229   20.092140   19.937040   19.781927   19.626801   19.471663   19.316509   19.161346   19.006168   18.850977   18.695770   18.540554   18.385323   18.230078   18.074820   17.919548   17.764261   17.608963   17.453650   17.298323   17.142981   16.987625   16.832256   16.676870   16.521471   16.366056   16.210629   16.055182   15.899722   15.744246   15.588756   15.433248   15.277725   15.122185   14.966629   14.811055   14.655465   14.499858   14.344233   14.188590   14.032930   13.877252   13.721554   13.565838   13.410102   13.254346   13.098571   12.942776   12.786962   12.631126   12.475271   12.319395   12.163499   12.007581   11.851642   11.695680   11.539696   11.383689   11.227660   11.071607   10.915531   10.759432   10.603311   10.447166   10.290999   10.134809    9.978599    9.822366    9.666113    9.509842    9.353555    9.197253    9.040941    8.884621    8.728294    8.571968    8.415645    8.259332    8.103034    7.946761    7.790521    7.634323    7.478181    7.322108    7.166121    7.010237    6.854478    6.698867    6.543431    6.388200    6.233208    6.078492    5.924096    5.770067    5.616455    5.463319    5.310721    5.158729    5.007416    4.856861    4.707146    4.558359    4.410591    4.263937    4.118491    3.974353    3.831619    3.690385    3.550745    3.412789    3.276607    3.142284    3.009911    2.879579    2.751389    2.625435    2.501747    2.380123    2.259682    2.137367    2.000000   -2.000000   -2.000000   -2.000000   -2.000000   -2.000000   -2.000000   -2.000000   -2.000000   -2.000000   -2.000000   -2.000000   -2.000000   -2.000000   -2.000000   -2.000000   -2.000000   -2.000000   -2.000000  -10.000000
30.000000   29.845360   29.690716   29.536068   29.381416   29.226761   29.072102   28.917439   28.762772   28.608099   28.453424   28.298744   28.144062   27.989374   27.834684   27.679989   27.525291   27.370588   27.215883   27.061172   26.906462   26.751743   26.597023   26.442297   26.287569   26.132832   25.978088   25.823339   25.668585   25.513823   25.359056   25.204285   25.049505   24.894718   24.739927   24.585129   24.430323   24.275511   24.120691   23.965864   23.811031   23.656189   23.501341   23.346485   23.191622   23.036751   22.881872   22.726986   22.572092   22.417191   22.262278   22.107353   21.952415   21.797464   21.642504   21.487530   21.332544   21.177547   21.022539   20.867517   20.712482   20.557434   20.402374   20.247303   20.092220   19.937124   19.782017   19.626898   19.471766   19.316620   19.161463   19.006292   18.851109   18.695911   18.540703   18.385481   18.230246   18.074999   17.919739   17.764465   17.609179   17.453880   17.298567   17.143242   16.987904   16.832550   16.677185   16.521805   16.366411   16.211004   16.055582   15.900147   15.744699   15.589236   15.433761   15.278270   15.122765   14.967245   14.811711   14.656163   14.500600   14.345022   14.189430   14.033823   13.878201   13.722564   13.566912   13.411244   13.255562   13.099863   12.944151   12.788424   12.632683   12.476926   12.321157   12.165371   12.009573   11.853760   11.697934   11.542093   11.386239   11.230371   11.074492   10.918600   10.762696   10.606783   10.450859   10.294928   10.138988    9.983044    9.827094    9.671143    9.515191    9.359243    9.203304    9.047377    8.891464    8.735573    8.579708    8.423875    8.268083    8.112338    7.956651    7.801033    7.645496    7.490054    7.334722    7.179518    7.024464    6.869581    6.714895    6.560434    6.406229    6.252317    6.098736    5.945529    5.792742    5.640429    5.488644    5.337450    5.186912    5.037102    4.888093    4.739964    4.592800    4.446684    4.301706    4.157957    4.015527    3.874507    3.734988    3.597059    3.460808    3.326318    3.193676    3.062964    2.934268    2.807667    2.683228    2.560966    2.440790    2.322454    2.205747    2.092381    2.000000   -2.000000   -2.000000   -2.000000   -2.000000   -2.000000   -2.000000   -2.000000   -2.000000   -2.000000   -2.000000   -2.000000   -2.000000   -2.000000   -2.000000   -2.000000   -2.000000   -2.000000  -10.000000
30.000000   29.845360   29.690716   29.536068   29.381416   29.226761   29.072102   28.917439   28.762772   28.608101   28.453424   28.298746   28.144062   27.989376   27.834684   27.679991   27.525291   27.370590   27.215883   27.061174   26.906462   26.751747   26.597025   26.442301   26.287571   26.132835   25.978092   25.823343   25.668589   25.513828   25.359064   25.204292   25.049513   24.894728   24.739937   24.585140   24.430334   24.275524   24.120705   23.965879   23.811047   23.656206   23.501358   23.346504   23.191643   23.036774   22.881897   22.727013   22.572121   22.417221   22.262310   22.107388   21.952452   21.797504   21.642546   21.487574   21.332592   21.177597   21.022593   20.867575   20.712543   20.557501   20.402447   20.247379   20.092300   19.937210   19.782108   19.626995   19.471869   19.316729   19.161579   19.006416   18.851240   18.696053   18.540854   18.385641   18.230417   18.075180   17.919931   17.764669   17.609396   17.454111   17.298813   17.143503   16.988180   16.832846   16.677498   16.522139   16.366766   16.211382   16.055984   15.900575   15.745153   15.589721   15.434275   15.278817   15.123346   14.967864   14.812370   14.656863   14.501345   14.345815   14.190272   14.034719   13.879153   13.723577   13.567989   13.412391   13.256781   13.101160   12.945529   12.789890   12.634241   12.478584   12.322919   12.167247   12.011567   11.855882   11.700190   11.544493   11.388791   11.233086   11.077378   10.921669   10.765961   10.610254   10.454551   10.298853   10.143163    9.987482    9.831814    9.676161    9.520526    9.364916    9.209334    9.053787    8.898279    8.742817    8.587407    8.432057    8.276777    8.121576    7.966465    7.811458    7.656567    7.501808    7.347199    7.192760    7.038512    6.884480    6.730690    6.577173    6.423961    6.271091    6.118600    5.966534    5.814940    5.663868    5.513374    5.363518    5.214365    5.065981    4.918439    4.771815    4.626187    4.481636    4.338245    4.196101    4.055287    3.915892    3.778000    3.641695    3.507062    3.374181    3.243134    3.114000    2.986858    2.861783    2.738843    2.618098    2.499617    2.383597    2.270785    2.163777    2.069987    2.000000   -2.000000   -2.000000   -2.000000   -2.000000   -2.000000   -2.000000   -2.000000   -2.000000   -2.000000   -2.000000   -2.000000   -2.000000   -2.000000   -2.000000   -2.000000   -2.000000  -10.000000
30.000000   29.845360   29.690716   29.536068   29.381416   29.226761   29.072102   28.917439   28.762772   28.608101   28.453426   28.298746   28.144064   27.989376   27.834686   27.679991   27.525293   27.370590   27.215885   27.061174   26.906464   26.751747   26.597029   26.442303   26.287575   26.132837   25.978096   25.823349   25.668594   25.513836   25.359070   25.204298   25.049520   24.894735   24.739946   24.585150   24.430346   24.275536   24.120718   23.965893   23.811062   23.656223   23.501377   23.346523   23.191664   23.036797   22.881922   22.727039   22.572149   22.417252   22.262342   22.107422   21.952488   21.797543   21.642588   21.487619   21.332640   21.177649   21.022646   20.867632   20.712605   20.557568   20.402517   20.247456   20.092381   19.937296   19.782200   19.627092   19.471972   19.316839   19.161695   19.006540   18.851372   18.696194   18.541002   18.385801   18.230587   18.075361   17.920124   17.764874   17.609613   17.454342   17.299059   17.143764   16.988459   16.833141   16.677813   16.522472   16.367123   16.211760   16.056387   15.901002   15.745608   15.590203   15.434789   15.279363   15.123928   14.968483   14.813027   14.657563   14.502089   14.346605   14.191114   14.035614   13.880106   13.724589   13.569066   13.413535   13.257998   13.102454   12.946906   12.791353   12.635798   12.480239   12.324679   12.169118   12.013557   11.857998   11.702440   11.546885   11.391335   11.235791   11.080255   10.924727   10.769213   10.613711   10.458226   10.302760   10.147316    9.991897    9.836507    9.681149    9.525828    9.370551    9.215322    9.060150    8.905041    8.750000    8.595037    8.440163    8.285385    8.130715    7.976169    7.821758    7.667497    7.513405    7.359499    7.205802    7.052338    6.899130    6.746208    6.593602    6.441346    6.289477    6.138034    5.987063    5.836609    5.686724    5.537461    5.388880    5.241042    5.094015    4.947865    4.802667    4.658494    4.515423    4.373535    4.232909    4.093627    3.955771    3.819421    3.684658    3.551561    3.420208    3.290677    3.163043    3.037381    2.913763    2.792264    2.672964    2.555982    2.441530    2.330021    2.221954    2.116170    2.000000   -2.000000   -2.000000   -2.000000   -2.000000   -2.000000   -2.000000   -2.000000   -2.000000   -2.000000   -2.000000   -2.000000   -2.000000   -2.000000   -2.000000   -2.000000   -2.000000  -10.000000
30.000000   29.845360   29.690716   29.536068   29.381416   29.226761   29.072102   28.917439   28.762772   28.608101   28.453426   28.298748   28.144064   27.989378   27.834686   27.679993   27.525293   27.370592   27.215885   27.061176   26.906464   26.751749   26.597029   26.442307   26.287577   26.132841   25.978100   25.823353   25.668600   25.513842   25.359076   25.204306   25.049528   24.894745   24.739956   24.585161   24.430357   24.275549   24.120731   23.965908   23.811077   23.656240   23.501396   23.346544   23.191685   23.036819   22.881947   22.727066   22.572178   22.417282   22.262375   22.107456   21.952524   21.797583   21.642630   21.487663   21.332687   21.177700   21.022699   20.867689   20.712667   20.557632   20.402588   20.247530   20.092463   19.937382   19.782291   19.627188   19.472075   19.316950   19.161814   19.006664   18.851505   18.696335   18.541153   18.385960   18.230755   18.075541   17.920315   17.765078   17.609829   17.454573   17.299303   17.144024   16.988735   16.833435   16.678125   16.522806   16.367476   16.212135   16.056786   15.901428   15.746060   15.590685   15.435300   15.279907   15.124507   14.969098   14.813683   14.658258   14.502830   14.347393   14.191952   14.036505   13.881052   13.725596   13.570136   13.414674   13.259209   13.103743   12.948275   12.792809   12.637345   12.481885   12.326429   12.170979   12.015535   11.860101   11.704676   11.549262   11.393862   11.238478   11.083110   10.927764   10.772439   10.617141   10.461871   10.306635   10.151434    9.996273    9.841157    9.686090    9.531078    9.376128    9.221247    9.066442    8.911723    8.757097    8.602572    8.448162    8.293875    8.139727    7.985729    7.831899    7.678252    7.524807    7.371584    7.218607    7.065899    6.913488    6.761402    6.609674    6.458338    6.307430    6.156993    6.007069    5.857705    5.708951    5.560862    5.413493    5.266906    5.121165    4.976336    4.832489    4.689694    4.548025    4.407559    4.268371    4.130539    3.994141    3.859253    3.725952    3.594313    3.464412    3.336322    3.210113    3.085857    2.963623    2.843482    2.725513    2.609814    2.496521    2.385813    2.277849    2.172739    2.072523    2.000000   -2.000000   -2.000000   -2.000000   -2.000000   -2.000000   -2.000000   -2.000000   -2.000000   -2.000000   -2.000000   -2.000000   -2.000000   -2.000000   -2.000000   -2.000000  -10.000000
30.000000   29.845360   29.690716   29.536068   29.381416   29.226761   29.072102   28.917439   28.762772   28.608101   28.453426   28.298748   28.144066   27.989378   27.834688   27.679993   27.525295   27.370592   27.215887   27.061178   26.906467   26.751751   26.597033   26.442308   26.287580   26.132845   25.978104   25.823357   25.668606   25.513845   25.359083   25.204311   25.049536   24.894754   24.739965   24.585171   24.430368   24.275560   24.120745   23.965923   23.811094   23.656258   23.501413   23.346561   23.191706   23.036842   22.881971   22.727093   22.572206   22.417313   22.262407   22.107491   21.952562   21.797623   21.642672   21.487709   21.332735   21.177752   21.022755   20.867748   20.712729   20.557699   20.402658   20.247606   20.092543   19.937468   19.782381   19.627285   19.472178   19.317059   19.161928   19.006788   18.851637   18.696474   18.541300   18.386116   18.230923   18.075718   17.920504   17.765278   17.610044   17.454800   17.299545   17.144281   16.989010   16.833727   16.678436   16.523136   16.367826   16.212509   16.057184   15.901850   15.746510   15.591162   15.435808   15.280448   15.125081   14.969709   14.814331   14.658949   14.503563   14.348174   14.192781   14.037387   13.881991   13.726594   13.571198   13.415802   13.260408   13.105018   12.949632   12.794251   12.638879   12.483515   12.328162   12.172821   12.017494   11.862183   11.706888   11.551614   11.396362   11.241135   11.085935   10.930765   10.775629   10.620531   10.465474   10.310463   10.155501   10.000594    9.845747    9.690966    9.536257    9.381627    9.227086    9.072642    8.918305    8.764083    8.609986    8.456028    8.302220    8.148577    7.995114    7.841848    7.688797    7.535979    7.383417    7.231134    7.079158    6.927514    6.776233    6.625349    6.474894    6.324908    6.175432    6.026508    5.878184    5.730509    5.583536    5.437320    5.291920    5.147400    5.003822    4.861254    4.719763    4.579422    4.440301    4.302474    4.166015    4.030997    3.897495    3.765580    3.635326    3.506804    3.380082    3.255229    3.132309    3.011389    2.892529    2.775792    2.661240    2.548926    2.438859    2.330889    2.224415    2.117351    2.000000   -2.000000   -2.000000   -2.000000   -2.000000   -2.000000   -2.000000   -2.000000   -2.000000   -2.000000   -2.000000   -2.000000   -2.000000   -2.000000   -2.000000   -2.000000  -10.000000
30.000000   29.845360   29.690716   29.536068   29.381416   29.226761   29.072102   28.917439   28.762772   28.608101   28.453426   28.298748   28.144066   27.989380   27.834688   27.679995   27.525295   27.370594   27.215887   27.061180   26.906467   26.751753   26.597034   26.442310   26.287582   26.132849   25.978107   25.823362   25.668610   25.513853   25.359089   25.204319   25.049543   24.894764   24.739975   24.585180   24.430380   24.275572   24.120758   23.965937   23.811108   23.656273   23.501431   23.346581   23.191725   23.036865   22.881996   22.727119   22.572235   22.417343   22.262440   22.107525   21.952599   21.797663   21.642714   21.487755   21.332785   21.177803   21.022810   20.867805   20.712791   20.557766   20.402729   20.247681   20.092621   19.937551   19.782473   19.627380   19.472279   19.317165   19.162045   19.006910   18.851767   18.696611   18.541447   18.386272   18.231089   18.075893   17.920691   17.765478   17.610256   17.455025   17.299786   17.144537   16.989281   16.834015   16.678743   16.523462   16.368174   16.212877   16.057575   15.902267   15.746953   15.591634   15.436310   15.280981   15.125648   14.970312   14.814973   14.659631   14.504289   14.348945   14.193602   14.038259   13.882917   13.727580   13.572246   13.416917   13.261593   13.106277   12.950971   12.795675   12.640391   12.485124   12.329871   12.174639   12.019425   11.864236   11.709070   11.553933   11.398827   11.243754   11.088717   10.933722   10.778771   10.623869   10.469020   10.314230   10.159503   10.004845    9.850261    9.695759    9.541346    9.387030    9.232821    9.078729    8.924763    8.770934    8.617254    8.463736    8.310392    8.157241    8.004295    7.851575    7.699099    7.546887    7.394963    7.243350    7.092076    6.941170    6.790662    6.640586    6.490976    6.341871    6.193312    6.045342    5.898009    5.751359    5.605447    5.460325    5.316052    5.172688    5.030294    4.888937    4.748681    4.609593    4.471745    4.335206    4.200045    4.066335    3.934145    3.803546    3.674606    3.547392    3.421972    3.298408    3.176762    3.057092    2.939450    2.823884    2.710426    2.599085    2.489808    2.382435    2.276679    2.172467    2.072562    2.000000   -2.000000   -2.000000   -2.000000   -2.000000   -2.000000   -2.000000   -2.000000   -2.000000   -2.000000   -2.000000   -2.000000   -2.000000   -2.000000   -2.000000  -10.000000
30.000000   29.845360   29.690716   29.536068   29.381416   29.226761   29.072102   28.917439   28.762772   28.608101   28.453426   28.298748   28.144066   27.989380   27.834690   27.679995   27.525297   27.370594   27.215889   27.061180   26.906469   26.751755   26.597036   26.442312   26.287586   26.132851   25.978111   25.823366   25.668615   25.513859   25.359095   25.204327   25.049553   24.894772   24.739985   24.585190   24.430391   24.275583   24.120771   23.965952   23.811125   23.656290   23.501448   23.346600   23.191746   23.036886   22.882019   22.727144   22.572262   22.417372   22.262472   22.107559   21.952637   21.797703   21.642757   21.487801   21.332832   21.177853   21.022863   20.867865   20.712852   20.557831   20.402798   20.247753   20.092699   19.937634   19.782560   19.627476   19.472378   19.317272   19.162157   19.007030   18.851892   18.696747   18.541592   18.386427   18.231251   18.076069   17.920876   17.765675   17.610464   17.455248   17.300022   17.144789   16.989548   16.834299   16.679045   16.523783   16.368515   16.213242   16.057962   15.902678   15.747390   15.592099   15.436804   15.281507   15.126206   14.970906   14.815604   14.660303   14.505002   14.349704   14.194407   14.039116   13.883830   13.728549   13.573277   13.418012   13.262758   13.107515   12.952287   12.797073   12.641879   12.486704   12.331552   12.176424   12.021323   11.866252   11.711214   11.556211   11.401246   11.246325   11.091449   10.936624   10.781854   10.627143   10.472498   10.317924   10.163425   10.009009    9.854682    9.700452    9.546327    9.392316    9.238430    9.084680    8.931075    8.777628    8.624352    8.471259    8.318366    8.165689    8.013244    7.861051    7.709129    7.557500    7.406189    7.255220    7.104621    6.954422    6.804654    6.655350    6.506546    6.358282    6.210598    6.063536    5.917143    5.771468    5.626562    5.482477    5.339270    5.197000    5.055727    4.915514    4.776424    4.638524    4.501878    4.366555    4.232623    4.100150    3.969203    3.839849    3.712156    3.586186    3.462003    3.339668    3.219238    3.100764    2.984294    2.869865    2.757496    2.647179    2.538851    2.432362    2.327398    2.223275    2.117782    2.000000   -2.000000   -2.000000   -2.000000   -2.000000   -2.000000   -2.000000   -2.000000   -2.000000   -2.000000   -2.000000   -2.000000   -2.000000   -2.000000   -2.000000  -10.000000
30.000000   29.845360   29.690716   29.536068   29.381416   29.226761   29.072102   28.917439   28.762772   28.608101   28.453426   28.298748   28.144066   27.989380   27.834690   27.679996   27.525297   27.370596   27.215889   27.061182   26.906469   26.751757   26.597038   26.442316   26.287588   26.132854   25.978115   25.823372   25.668621   25.513863   25.359102   25.204334   25.049559   24.894779   24.739992   24.585201   24.430401   24.275597   24.120785   23.965965   23.811138   23.656305   23.501465   23.346619   23.191767   23.036909   22.882042   22.727169   22.572290   22.417402   22.262505   22.107595   21.952675   21.797743   21.642799   21.487844   21.332878   21.177902   21.022915   20.867920   20.712914   20.557894   20.402864   20.247826   20.092775   19.937716   19.782646   19.627567   19.472477   19.317377   19.162268   19.007147   18.852018   18.696880   18.541733   18.386576   18.231411   18.076239   17.921057   17.765867   17.610670   17.455465   17.300253   17.145035   16.989809   16.834578   16.679340   16.524097   16.368851   16.213598   16.058342   15.903081   15.747819   15.592554   15.437288   15.282021   15.126754   14.971487   14.816223   14.660960   14.505701   14.350447   14.195198   14.039957   13.884723   13.729499   13.574286   13.419086   13.263898   13.108728   12.953575   12.798444   12.643334   12.488252   12.333196   12.178171   12.023180   11.868225   11.713309   11.558437   11.403612   11.248838   11.094119   10.939460   10.784865   10.630342   10.475895   10.321530   10.167254   10.013074    9.858996    9.705030    9.551185    9.397470    9.243896    9.090477    8.937222    8.784143    8.631256    8.478576    8.326116    8.173896    8.021933    7.870246    7.718857    7.567789    7.417066    7.266713    7.116760    6.967236    6.818174    6.669607    6.521573    6.374107    6.227253    6.081054    5.935555    5.790803    5.646849    5.503746    5.361547    5.220311    5.080097    4.940964    4.802976    4.666194    4.530684    4.396510    4.263739    4.132435    4.002664    3.874491    3.747979    3.623190    3.500185    3.379022    3.259754    3.142431    3.027097    2.913785    2.802513    2.693281    2.586056    2.480762    2.377277    2.275453    2.175289    2.078419    2.000000   -2.000000   -2.000000   -2.000000   -2.000000   -2.000000   -2.000000   -2.000000   -2.000000   -2.000000   -2.000000   -2.000000   -2.000000   -2.000000  -10.000000
30.000000   29.845360   29.690716   29.536068   29.381416   29.226761   29.072102   28.917439   28.762772   28.608101   28.453426   28.298748   28.144066   27.989380   27.834690   27.679996   27.525299   27.370596   27.215891   27.061182   26.906471   26.751757   26.597040   26.442318   26.287592   26.132858   25.978121   25.823376   25.668625   25.513870   25.359108   25.204340   25.049566   24.894787   24.740002   24.585211   24.430412   24.275608   24.120798   23.965979   23.811153   23.656322   23.501482   23.346638   23.191788   23.036930   22.882065   22.727194   22.572317   22.417433   22.262537   22.107630   21.952711   21.797781   21.642839   21.487886   21.332924   21.177950   21.022966   20.867973   20.712971   20.557957   20.402931   20.247896   20.092850   19.937796   19.782730   19.627657   19.472572   19.317478   19.162374   19.007261   18.852140   18.697010   18.541870   18.386723   18.231567   18.076405   17.921232   17.766054   17.610868   17.455677   17.300478   17.145275   16.990065   16.834850   16.679628   16.524405   16.369177   16.213945   16.058710   15.903475   15.748237   15.592999   15.437759   15.282523   15.127287   14.972054   14.816826   14.661602   14.506383   14.351172   14.195970   14.040776   13.885594   13.730425   13.575271   13.420132   13.265011   13.109910   12.954832   12.799779   12.644754   12.489759   12.334799   12.179873   12.024989   11.870147   11.715352   11.560606   11.405916   11.251285   11.096718   10.942220   10.787797   10.633454   10.479198   10.325037   10.170977   10.017024    9.863188    9.709477    9.555902    9.402472    9.249201    9.096100    8.943182    8.790459    8.637947    8.485662    8.333620    8.181839    8.030337    7.879137    7.728258    7.577725    7.427564    7.277800    7.128462    6.979582    6.831192    6.683327    6.536022    6.389316    6.243250    6.097867    5.953213    5.809334    5.666281    5.524104    5.382857    5.242597    5.103380    4.965267    4.828316    4.692590    4.558150    4.425060    4.293384    4.163184    4.034525    3.907468    3.782076    3.658408    3.536524    3.416478    3.298324    3.182109    3.067877    2.955662    2.845490    2.737377    2.631328    2.527351    2.425495    2.325970    2.229503    2.138388    2.058955    2.000000   -2.000000   -2.000000   -2.000000   -2.000000   -2.000000   -2.000000   -2.000000   -2.000000   -2.000000   -2.000000   -2.000000   -2.000000  -10.000000
30.000000   29.845360   29.690716   29.536068   29.381416   29.226761   29.072102   28.917439   28.762772   28.608101   28.453426   28.298748   28.144066   27.989380   27.834690   27.679996   27.525299   27.370598   27.215891   27.061184   26.906473   26.751759   26.597042   26.442322   26.287594   26.132862   25.978123   25.823380   25.668631   25.513876   25.359114   25.204348   25.049574   24.894796   24.740011   24.585220   24.430424   24.275620   24.120810   23.965992   23.811169   23.656338   23.501501   23.346657   23.191807   23.036951   22.882088   22.727219   22.572344   22.417461   22.262568   22.107662   21.952745   21.797817   21.642878   21.487928   21.332968   21.177996   21.023016   20.868025   20.713026   20.558016   20.402994   20.247963   20.092922   19.937872   19.782812   19.627743   19.472666   19.317575   19.162479   19.007372   18.852259   18.697134   18.542004   18.386864   18.231718   18.076565   17.921404   17.766237   17.611063   17.455883   17.300699   17.145508   16.990314   16.835114   16.679911   16.524704   16.369493   16.214283   16.059071   15.903856   15.748643   15.593430   15.438219   15.283010   15.127806   14.972606   14.817412   14.662225   14.507046   14.351876   14.196718   14.041573   13.886440   13.731324   13.576226   13.421148   13.266090   13.111058   12.956051   12.801075   12.646131   12.491223   12.336353   12.181526   12.026744   11.872012   11.717332   11.562710   11.408150   11.253657   11.099236   10.944895   10.790636   10.636469   10.482398   10.328433   10.174580   10.020846    9.867243    9.713778    9.560463    9.407309    9.254327    9.101532    8.948937    8.796556    8.644403    8.492497    8.340855    8.189493    8.038433    7.887696    7.737305    7.587283    7.437656    7.288452    7.139700    6.991432    6.843680    6.696479    6.549866    6.403878    6.258557    6.113946    5.970090    5.827035    5.684830    5.543526    5.403176    5.263834    5.125557    4.988401    4.852427    4.717694    4.584262    4.452193    4.321548    4.192390    4.064780    3.938779    3.814446    3.691841    3.571021    3.452041    3.334952    3.219803    3.106637    2.995494    2.886407    2.779408    2.674528    2.571819    2.471382    2.373429    2.278365    2.186675    2.097432    2.000000   -2.000000   -2.000000   -2.000000   -2.000000   -2.000000   -2.000000   -2.000000   -2.000000   -2.000000   -2.000000   -2.000000   -2.000000  -10.000000
30.000000   29.845360   29.690716   29.536068   29.381416   29.226761   29.072102   28.917439   28.762772   28.608101   28.453426   28.298748   28.144066   27.989380   27.834690   27.679996   27.525299   27.370598   27.215893   27.061184   26.906473   26.751760   26.597044   26.442322   26.287598   26.132864   25.978127   25.823383   25.668636   25.513880   25.359119   25.204353   25.049582   24.894804   24.740021   24.585230   24.430433   24.275631   24.120821   23.966005   23.811182   23.656353   23.501516   23.346674   23.191826   23.036970   22.882109   22.727242   22.572369   22.417488   22.262596   22.107693   21.952778   21.797852   21.642914   21.487968   21.333010   21.178041   21.023064   20.868076   20.713079   20.558073   20.403055   20.248028   20.092991   19.937946   19.782892   19.627829   19.472754   19.317671   19.162579   19.007481   18.852371   18.697256   18.542133   18.387003   18.231865   18.076721   17.921570   17.766415   17.611252   17.456083   17.300911   17.145735   16.990555   16.835371   16.680183   16.524992   16.369801   16.214609   16.059418   15.904225   15.749035   15.593847   15.438663   15.283483   15.128307   14.973140   14.817979   14.662827   14.507686   14.352557   14.197441   14.042341   13.887259   13.732193   13.577150   13.422130   13.267135   13.112166   12.957230   12.802326   12.647461   12.492636   12.337855   12.183121   12.028439   11.873811   11.719244   11.564740   11.410306   11.255946   11.101667   10.947474   10.793375   10.639376   10.485483   10.331705   10.178051   10.024529    9.871148    9.717919    9.564853    9.411962    9.259258    9.106756    8.954471    8.802415    8.650606    8.499062    8.347799    8.196838    8.046199    7.895903    7.745974    7.596437    7.447319    7.298645    7.150449    7.002759    6.855611    6.709038    6.563077    6.417767    6.273149    6.129265    5.986160    5.843880    5.702474    5.561990    5.422482    5.284002    5.146607    5.010352    4.875295    4.741494    4.609008    4.477898    4.348223    4.220045    4.093423    3.968417    3.845086    3.723487    3.603677    3.485710    3.369638    3.255511    3.143373    3.033268    2.925236    2.819317    2.715556    2.614015    2.514782    2.417999    2.323852    2.232514    2.144097    2.060278    2.000000   -2.000000   -2.000000   -2.000000   -2.000000   -2.000000   -2.000000   -2.000000   -2.000000   -2.000000   -2.000000   -2.000000  -10.000000
30.000000   29.845360   29.690716   29.536068   29.381416   29.226761   29.072102   28.917439   28.762772   28.608101   28.453426   28.298748   28.144066   27.989380   27.834690   27.679996   27.525299   27.370598   27.215893   27.061184   26.906473   26.751762   26.597046   26.442326   26.287600   26.132868   25.978130   25.823389   25.668640   25.513885   25.359125   25.204361   25.049589   24.894812   24.740028   24.585239   24.430445   24.275642   24.120834   23.966019   23.811197   23.656368   23.501534   23.346693   23.191845   23.036991   22.882130   22.727264   22.572393   22.417513   22.262623   22.107721   21.952808   21.797884   21.642950   21.488005   21.333050   21.178085   21.023111   20.868126   20.713131   20.558128   20.403114   20.248091   20.093060   19.938019   19.782969   19.627909   19.472839   19.317762   19.162676   19.007584   18.852482   18.697372   18.542257   18.387135   18.232006   18.076870   17.921730   17.766584   17.611433   17.456276   17.301117   17.145952   16.990786   16.835615   16.680445   16.525270   16.370096   16.214924   16.059750   15.904580   15.749413   15.594248   15.439089   15.283936   15.128790   14.973652   14.818524   14.663406   14.508302   14.353211   14.198137   14.043081   13.888044   13.733029   13.578038   13.423074   13.268137   13.113233   12.958362   12.803530   12.648739   12.493995   12.339297   12.184653   12.030066   11.875540   11.721079   11.566689   11.412375   11.258143   11.103999   10.949950   10.796002   10.642164   10.488441   10.334844   10.181379   10.028059    9.874891    9.721887    9.569058    9.416418    9.263979    9.111756    8.959764    8.808020    8.656537    8.505337    8.354435    8.203854    8.053612    7.903734    7.754244    7.605166    7.456527    7.308356    7.160683    7.013539    6.866959    6.720978    6.575631    6.430959    6.287001    6.143799    6.001400    5.859847    5.719188    5.579473    5.440754    5.303082    5.166512    5.031100    4.896902    4.763973    4.632375    4.502163    4.373399    4.246140    4.120448    3.996378    3.873990    3.753342    3.634487    3.517483    3.402379    3.289227    3.178075    3.068967    2.961950    2.857067    2.754365    2.653900    2.555733    2.459932    2.366529    2.275432    2.186163    2.097014    2.000000   -2.000000   -2.000000   -2.000000   -2.000000   -2.000000   -2.000000   -2.000000   -2.000000   -2.000000   -2.000000   -2.000000  -10.000000
30.000000   29.845360   29.690716   29.536068   29.381416   29.226761   29.072102   28.917439   28.762772   28.608101   28.453426   28.298748   28.144066   27.989380   27.834690   27.679996   27.525299   27.370598   27.215893   27.061184   26.906475   26.751762   26.597048   26.442327   26.287603   26.132872   25.978136   25.823393   25.668646   25.513891   25.359133   25.204367   25.049595   24.894819   24.740036   24.585247   24.430452   24.275652   24.120844   23.966030   23.811209   23.656382   23.501549   23.346708   23.191862   23.037010   22.882153   22.727287   22.572416   22.417538   22.262650   22.107750   21.952839   21.797916   21.642984   21.488043   21.333090   21.178127   21.023155   20.868174   20.713182   20.558182   20.403172   20.248154   20.093124   19.938087   19.783041   19.627985   19.472921   19.317850   19.162769   19.007683   18.852587   18.697487   18.542377   18.387262   18.232141   18.077015   17.921883   17.766747   17.611605   17.456461   17.301311   17.146162   16.991007   16.835852   16.680695   16.525537   16.370380   16.215223   16.060070   15.904920   15.749774   15.594632   15.439498   15.284369   15.129251   14.974142   14.819045   14.663961   14.508891   14.353838   14.198804   14.043789   13.888797   13.733829   13.578888   13.423976   13.269096   13.114251   12.959445   12.804680   12.649961   12.495292   12.340676   12.186117   12.031621   11.877191   11.722833   11.568551   11.414352   11.260242   11.106227   10.952314   10.798512   10.644825   10.491264   10.337837   10.184555   10.031425    9.878460    9.725669    9.573066    9.420663    9.268476    9.116517    8.964805    8.813353    8.662179    8.511303    8.360743    8.210519    8.060654    7.911170    7.762093    7.613447    7.465261    7.317561    7.170380    7.023749    6.877703    6.732276    6.587505    6.443430    6.300089    6.157527    6.015786    5.874913    5.734953    5.595957    5.457974    5.321056    5.185256    5.050631    4.917233    4.785120    4.654350    4.524979    4.397065    4.270668    4.145845    4.022654    3.901153    3.781399    3.663446    3.547351    3.433166    3.320942    3.210729    3.102576    2.996528    2.892633    2.790937    2.691485    2.594319    2.499464    2.406901    2.316522    2.228110    2.141615    2.059299    2.000000   -2.000000   -2.000000   -2.000000   -2.000000   -2.000000   -2.000000   -2.000000   -2.000000   -2.000000   -2.000000  -10.000000
30.000000   29.845360   29.690716   29.536068   29.381416   29.226761   29.072102   28.917439   28.762772   28.608101   28.453426   28.298748   28.144066   27.989380   27.834690   27.679996   27.525299   27.370598   27.215893   27.061186   26.906475   26.751764   26.597050   26.442331   26.287605   26.132875   25.978138   25.823397   25.668648   25.513895   25.359137   25.204372   25.049601   24.894825   24.740044   24.585255   24.430462   24.275661   24.120855   23.966042   23.811222   23.656395   23.501562   23.346724   23.191879   23.037029   22.882172   22.727308   22.572439   22.417561   22.262674   22.107777   21.952868   21.797947   21.643017   21.488077   21.333126   21.178165   21.023197   20.868217   20.713230   20.558231   20.403225   20.248211   20.093187   19.938152   19.783110   19.628059   19.473001   19.317934   19.162859   19.007776   18.852688   18.697592   18.542490   18.387383   18.232269   18.077150   17.922029   17.766901   17.611771   17.456636   17.301498   17.146358   16.991217   16.836075   16.680933   16.525789   16.370649   16.215511   16.060375   15.905244   15.750117   15.594998   15.439886   15.284783   15.129690   14.974609   14.819541   14.664489   14.509452   14.354434   14.199436   14.044462   13.889511   13.734589   13.579695   13.424834   13.270007   13.115220   12.960473   12.805774   12.651122   12.496526   12.341986   12.187510   12.033098   11.878760   11.724498   11.570319   11.416229   11.262235   11.108341   10.954558   10.800892   10.647350   10.493942   10.340677   10.187565   10.034616    9.881842    9.729254    9.576863    9.424685    9.272734    9.121025    8.969574    8.818398    8.667516    8.516945    8.366706    8.216819    8.067307    7.918193    7.769503    7.621262    7.473498    7.326241    7.179520    7.033369    6.887820    6.742911    6.598678    6.455159    6.312395    6.170427    6.029300    5.889059    5.749750    5.611421    5.474123    5.337906    5.202823    5.068929    4.936276    4.804922    4.674922    4.546333    4.419212    4.293618    4.169607    4.047238    3.926567    3.807651    3.690546    3.575307    3.461989    3.350644    3.241323    3.134076    3.028953    2.926000    2.825263    2.726783    2.630593    2.536704    2.445088    2.355644    2.268138    2.182036    2.095582    2.000000   -2.000000   -2.000000   -2.000000   -2.000000   -2.000000   -2.000000   -2.000000   -2.000000   -2.000000   -2.000000  -10.000000
30.000000   29.845360   29.690716   29.536068   29.381416   29.226761   29.072102   28.917439   28.762772   28.608101   28.453426   28.298748   28.144066   27.989380   27.834690   27.679996   27.525299   27.370598   27.215893   27.061186   26.906477   26.751764   26.597052   26.442331   26.287607   26.132875   25.978142   25.823399   25.668652   25.513901   25.359142   25.204376   25.049606   24.894831   24.740049   24.585262   24.430470   24.275669   24.120863   23.966051   23.811232   23.656406   23.501575   23.346739   23.191895   23.037045   22.882189   22.727327   22.572458   22.417583   22.262697   22.107801   21.952894   21.797976   21.643047   21.488110   21.333160   21.178204   21.023237   20.868261   20.713276   20.558281   20.403276   20.248264   20.093245   19.938215   19.783176   19.628130   19.473074   19.318012   19.162943   19.007866   18.852783   18.697693   18.542597   18.387497   18.232391   18.077280   17.922165   17.767048   17.611925   17.456802   17.301674   17.146545   16.991417   16.836287   16.681158   16.526030   16.370903   16.215782   16.060663   15.905549   15.750443   15.595343   15.440253   15.285172   15.130105   14.975049   14.820010   14.664987   14.509982   14.354997   14.200035   14.045097   13.890187   13.735306   13.580458   13.425644   13.270868   13.116134   12.961445   12.806805   12.652219   12.497689   12.343223   12.188822   12.034493   11.880240   11.726070   11.571987   11.418000   11.264113   11.110336   10.956674   10.803136   10.649731   10.496467   10.343353   10.190402   10.037623    9.885028    9.732629    9.580438    9.428470    9.276741    9.125265    8.974061    8.823144    8.672533    8.522247    8.372308    8.222735    8.073553    7.924785    7.776455    7.628592    7.481222    7.334376    7.188083    7.042377    6.897293    6.752865    6.609130    6.466128    6.323897    6.182482    6.041923    5.902267    5.763560    5.625850    5.489185    5.353617    5.219198    5.085979    4.954018    4.823365    4.694079    4.566215    4.439830    4.314981    4.191725    4.070119    3.950222    3.832089    3.715777    3.601341    3.488837    3.378320    3.269840    3.163452    3.059205    2.957149    2.857331    2.759791    2.664565    2.571671    2.481104    2.392827    2.306762    2.222810    2.140990    2.062637    2.000000   -2.000000   -2.000000   -2.000000   -2.000000   -2.000000   -2.000000   -2.000000   -2.000000   -2.000000  -10.000000
30.000000   29.845360   29.690716   29.536068   29.381416   29.226761   29.072102   28.917439   28.762772   28.608101   28.453426   28.298748   28.144066   27.989380   27.834690   27.679996   27.525299   27.370598   27.215893   27.061186   26.906477   26.751766   26.597052   26.442333   26.287607   26.132879   25.978144   25.823402   25.668657   25.513905   25.359146   25.204382   25.049612   24.894836   24.740057   24.585270   24.430477   24.275677   24.120872   23.966061   23.811243   23.656420   23.501589   23.346752   23.191910   23.037062   22.882206   22.727345   22.572477   22.417603   22.262718   22.107824   21.952919   21.798002   21.643076   21.488140   21.333195   21.178240   21.023275   20.868301   20.713318   20.558325   20.403324   20.248316   20.093298   19.938272   19.783237   19.628195   19.473145   19.318087   19.163023   19.007950   18.852873   18.697788   18.542698   18.387604   18.232506   18.077402   17.922295   17.767185   17.612072   17.456957   17.301840   17.146721   16.991604   16.836485   16.681370   16.526255   16.371143   16.216036   16.060932   15.905836   15.750747   15.595667   15.440597   15.285539   15.130493   14.975463   14.820449   14.665454   14.510478   14.355525   14.200595   14.045693   13.890820   13.735979   13.581172   13.426404   13.271675   13.116992   12.962356   12.807773   12.653246   12.498781   12.344381   12.190053   12.035799   11.881627   11.727542   11.573550   11.419658   11.265873   11.112203   10.958654   10.805237   10.651958   10.498828   10.345858   10.193056   10.040436    9.888007    9.735785    9.583779    9.432008    9.280485    9.129227    8.978251    8.827575    8.677217    8.527196    8.377535    8.228254    8.079378    7.930929    7.782935    7.635421    7.488416    7.341949    7.196053    7.050759    6.906102    6.762118    6.618844    6.476318    6.334580    6.193672    6.053638    5.914522    5.776369    5.639228    5.503147    5.368176    5.234366    5.101771    4.970444    4.840439    4.711811    4.584615    4.458908    4.334747    4.212189    4.091291    3.972110    3.854704    3.739129    3.625441    3.513698    3.403955    3.296265    3.190685    3.087265    2.986060    2.887118    2.790485    2.696204    2.604309    2.514829    2.427796    2.343273    2.261451    2.182932    2.109558    2.046350    2.000000   -2.000000   -2.000000   -2.000000   -2.000000   -2.000000   -2.000000   -2.000000   -2.000000  -10.000000
30.000000   29.845360   29.690716   29.536068   29.381416   29.226761   29.072102   28.917439   28.762772   28.608101   28.453426   28.298748   28.144066   27.989380   27.834690   27.679996   27.525299   27.370598   27.215893   27.061186   26.906477   26.751766   26.597054   26.442333   26.287611   26.132881   25.978148   25.823406   25.668661   25.513908   25.359150   25.204388   25.049618   24.894844   24.740063   24.585276   24.430483   24.275684   24.120880   23.966070   23.811253   23.656429   23.501600   23.346766   23.191923   23.037075   22.882221   22.727362   22.572495   22.417622   22.262737   22.107845   21.952942   21.798027   21.643103   21.488169   21.333225   21.178272   21.023310   20.868338   20.713358   20.558369   20.403370   20.248363   20.093348   19.938326   19.783295   19.628256   19.473209   19.318155   19.163095   19.008030   18.852957   18.697878   18.542793   18.387705   18.232611   18.077515   17.922415   17.767313   17.612207   17.457100   17.301992   17.146885   16.991777   16.836670   16.681566   16.526463   16.371365   16.216270   16.061184   15.906102   15.751031   15.595968   15.440918   15.285879   15.130856   14.975847   14.820858   14.665888   14.510940   14.356015   14.201118   14.046247   13.891409   13.736605   13.581838   13.427110   13.272427   13.117789   12.963203   12.808672   12.654202   12.499795   12.345459   12.191195   12.037013   11.882915   11.728909   11.575002   11.421199   11.267508   11.113936   10.960493   10.807187   10.654026   10.501020   10.348181   10.195518   10.043045    9.890772    9.738711    9.586879    9.435287    9.283956    9.132898    8.982133    8.831678    8.681554    8.531778    8.382373    8.233361    8.084766    7.936612    7.788925    7.641733    7.495063    7.348946    7.203413    7.058496    6.914233    6.770656    6.627803    6.485713    6.344427    6.203984    6.064429    5.925806    5.788161    5.651540    5.515993    5.381567    5.248316    5.116291    4.985545    4.856132    4.728106    4.601521    4.476437    4.352907    4.230990    4.110742    3.992221    3.875485    3.760590    3.647595    3.536557    3.427533    3.320580    3.215753    3.113111    3.012706    2.914594    2.818826    2.725455    2.634531    2.546108    2.460255    2.377083    2.296791    2.219728    2.146312    2.075842    2.000000   -2.000000   -2.000000   -2.000000   -2.000000   -2.000000   -2.000000   -2.000000   -2.000000  -10.000000
